# .PCD v0.7 - Point Cloud Data file format
VERSION 0.7
FIELDS x y z
SIZE 4 4 4
TYPE F F F
COUNT 1 1 1
WIDTH 1491
HEIGHT 1
VIEWPOINT 0 0 0 1 0 0 0
POINTS 1491
DATA ascii
-11.274849 -9.585928 -15.76509
-16.939356 -16.862326 -15.676541
-16.939356 -16.862326 -15.676541
-17.147749 -16.572033 -15.67988
-17.147749 -16.572033 -15.67988
-16.878653 -17.431683 -15.522504
-7.9474368 -8.637536 -15.523959
-10.353118 -8.328126 -15.455816
-16.928146 -14.66144 -15.353404
-16.928146 -14.66144 -15.353404
5.718092 -12.954538 -15.353331
5.718092 -12.954538 -15.353331
5.5253677 -12.817369 -15.301559
5.5253677 -12.817369 -15.301559
5.5253677 -12.817369 -15.301559
5.5253677 -12.817369 -15.301559
5.7555366 -12.877551 -15.301888
5.7555366 -12.877551 -15.301888
-1.1786311 -10.740829 -15.384518
-1.1786311 -10.740829 -15.384518
-0.93017554 -10.765808 -15.384423
-16.980085 -17.535595 -15.244743
-16.980085 -17.535595 -15.244743
-16.931273 -17.169403 -15.21166
-0.62572718 -10.74702 -15.286105
-0.62572718 -10.74702 -15.286105
-0.36969841 -10.786261 -15.223886
-0.36969841 -10.786261 -15.223886
-0.67435658 -10.695356 -15.287519
-3.9579952 -9.6177816 -15.222408
-7.1708131 -8.1542988 -15.230131
-7.8625546 -7.8273487 -15.265249
7.7099156 -19.157555 -15.121494
7.7099156 -19.157555 -15.121494
7.7099156 -19.157555 -15.121494
-17.012018 -14.980441 -15.183457
-17.012018 -14.980441 -15.183457
5.2675605 -12.458149 -15.140228
5.2675605 -12.458149 -15.140228
5.6318698 -12.473799 -15.101378
4.8344736 -12.174011 -15.162029
4.8344736 -12.174011 -15.162029
-0.2843973 -10.801587 -15.160852
-0.0734016 -10.576755 -15.102677
1.3707917 -10.556432 -15.118252
1.3707917 -10.556432 -15.118252
-0.75120372 -10.240475 -15.111641
-0.65716404 -10.261823 -15.124097
-6.5419931 -9.0129919 -15.192879
-9.1063528 -7.8237553 -15.191113
-8.9597111 -7.4842305 -15.113757
-8.9597111 -7.4842305 -15.113757
-17.041677 -17.184618 -15.021447
-17.041677 -17.184618 -15.021447
-17.037432 -16.800428 -15.062916
5.6525207 -12.53961 -15.09402
5.8412294 -12.578283 -15.063763
4.3643122 -11.592447 -15.050793
0.25733456 -10.309657 -15.045994
0.25733456 -10.309657 -15.045994
0.25733456 -10.309657 -15.045994
0.25733456 -10.309657 -15.045994
1.8013256 -10.333255 -15.005302
1.8013256 -10.333255 -15.005302
-0.50491202 -10.266355 -15.062423
-0.42013419 -9.9785414 -15.008591
-8.6794233 -7.5151238 -15.090785
-9.8478069 -6.9604568 -15.012973
5.0927868 -11.951651 -14.961855
5.1775227 -11.98996 -14.952366
4.1743774 -11.344045 -14.941875
4.1743774 -11.344045 -14.941875
1.4825739 -10.147279 -14.937263
1.4274659 -10.035404 -14.937712
-0.55695635 -9.9496861 -14.966346
-0.46769196 -9.9794931 -14.972384
-0.35067362 -9.7414551 -14.96635
-0.35067362 -9.7414551 -14.96635
-0.35067362 -9.7414551 -14.96635
0.40126315 -9.7385731 -14.993356
0.41365483 -9.6054726 -14.929887
0.41365483 -9.6054726 -14.929887
-9.4593639 -7.0164623 -14.996598
-8.7081642 -6.9195576 -14.90781
5.892736 -12.220476 -14.855074
5.892736 -12.220476 -14.855074
5.892736 -12.220476 -14.855074
5.493506 -11.804941 -14.868111
4.1577902 -10.813557 -14.804228
3.4543824 -10.241414 -14.861862
3.6546102 -10.265205 -14.822687
3.6546102 -10.265205 -14.822687
0.43776304 -9.9956932 -14.886718
1.749838 -9.9479532 -14.822595
-0.64035922 -9.5291624 -14.851692
0.23062919 -9.5180702 -14.802184
-8.9420738 -6.8770008 -14.880508
-9.425622 -6.7151089 -14.896807
-8.0380707 -6.5516586 -14.871224
7.950294 -19.032421 -14.716709
7.950294 -19.032421 -14.716709
8.0141735 -18.994659 -14.716469
5.1501403 -11.522818 -14.771269
4.1305275 -10.868099 -14.785412
4.1305275 -10.868099 -14.785412
4.7607794 -10.860909 -14.773268
4.7607794 -10.860909 -14.773268
3.1853783 -10.577019 -14.739775
3.3353593 -10.550869 -14.763036
3.2505579 -10.213254 -14.743368
3.2505579 -10.213254 -14.743368
2.3390727 -10.114311 -14.790886
2.4372163 -10.127686 -14.76726
4.1782837 -10.064114 -14.752775
4.1782837 -10.064114 -14.752775
1.8804679 -9.9021082 -14.758878
1.8804679 -9.9021082 -14.758878
1.0539597 -9.7545195 -14.74929
1.0539597 -9.7545195 -14.74929
1.0539597 -9.7545195 -14.74929
0.90251052 -9.5615187 -14.720265
-5.9596992 -7.1380944 -14.770341
-7.6649842 -6.4418898 -14.796971
5.9332948 -11.258485 -14.681517
4.8697829 -11.167387 -14.641374
4.8697829 -11.167387 -14.641374
4.5730686 -10.823343 -14.639187
5.3734021 -10.778009 -14.68652
5.4515867 -10.757267 -14.648008
3.7143452 -10.566208 -14.684099
3.7143452 -10.566208 -14.684099
3.7143452 -10.566208 -14.684099
5.869772 -10.418818 -14.659771
5.869772 -10.418818 -14.659771
2.9847925 -10.335165 -14.615523
1.8936583 -9.5549412 -14.673693
1.8936583 -9.5549412 -14.673693
1.9511446 -9.5524035 -14.652332
1.2178459 -9.3379078 -14.612568
0.50676388 -9.0365076 -14.692754
-2.1183171 -8.4145021 -14.630909
-2.1183171 -8.4145021 -14.630909
-1.1398715 -8.2780104 -14.601759
-4.9751573 -7.1891255 -14.655997
-5.0603828 -7.0567055 -14.64045
-7.8249178 -5.9428492 -14.640406
-9.1989594 -5.6797934 -14.628792
3.7860553 -11.186345 -14.565746
6.0481768 -10.953689 -14.528283
5.2334681 -10.872492 -14.552762
6.1076965 -10.847649 -14.519644
6.1076965 -10.847649 -14.519644
5.6268349 -10.657534 -14.562912
5.6162524 -10.548223 -14.549036
5.8214135 -10.450022 -14.595362
5.8214135 -10.450022 -14.595362
4.8800716 -10.340542 -14.556725
5.0317421 -10.319699 -14.53075
4.6484504 -10.257872 -14.580923
4.648181 -10.142212 -14.538239
4.648181 -10.142212 -14.538239
3.7437069 -9.9576931 -14.508691
3.7437069 -9.9576931 -14.508691
3.7437069 -9.9576931 -14.508691
2.4654925 -9.6514273 -14.531382
1.0278425 -8.9678688 -14.510148
1.0278425 -8.9678688 -14.510148
1.0278425 -8.9678688 -14.510148
-0.25885877 -8.5575495 -14.548472
-5.616725 -6.8806214 -14.598915
-5.616725 -6.8806214 -14.598915
-7.2702909 -5.6857476 -14.535818
-29.251518 2.1162176 -14.565287
8.6516151 -18.139866 -14.475258
6.0334983 -11.348698 -14.443864
6.2535667 -10.563833 -14.432552
6.2535667 -10.563833 -14.432552
6.2290101 -10.464886 -14.433878
2.6830416 -10.383217 -14.427934
4.3620849 -10.30816 -14.471087
2.1587057 -10.055581 -14.478984
6.2506933 -10.031029 -14.433123
6.2506933 -10.031029 -14.433123
3.6801445 -9.9074116 -14.499866
6.4711623 -9.9675846 -14.411719
3.1412425 -9.812562 -14.443633
5.6064687 -9.7883692 -14.40413
2.6987901 -9.681426 -14.499064
2.6987901 -9.681426 -14.499064
4.6885724 -9.6182194 -14.451139
4.932981 -9.684535 -14.411537
5.0046258 -9.6848154 -14.40278
3.9392619 -9.5584259 -14.459221
1.4455934 -9.0542688 -14.458316
1.2387731 -8.6992245 -14.40561
-2.6159062 -8.1642933 -14.482082
-2.6159062 -8.1642933 -14.482082
-0.81872219 -8.1265831 -14.486874
-0.81872219 -8.1265831 -14.486874
-1.6203669 -8.0011053 -14.48469
-4.9996881 -7.1508579 -14.41554
-4.9996881 -7.1508579 -14.41554
-7.6356788 -5.7033305 -14.496535
-6.931694 -5.7560325 -14.47805
-6.7166281 -5.6996174 -14.410138
8.6986151 -18.502748 -14.367957
8.5655203 -18.459747 -14.349518
8.5655203 -18.459747 -14.349518
8.8053417 -17.943401 -14.364826
8.8053417 -17.943401 -14.364826
2.5245996 -10.314511 -14.316904
2.5245996 -10.314511 -14.316904
2.5245996 -10.314511 -14.316904
3.076263 -10.284714 -14.398346
6.0123882 -10.243202 -14.363176
6.0123882 -10.243202 -14.363176
6.0123882 -10.243202 -14.363176
6.6694794 -9.7206221 -14.333996
5.4664125 -9.664196 -14.376081
6.5947981 -9.622571 -14.305981
6.5947981 -9.622571 -14.305981
3.5546894 -9.5445557 -14.366408
3.5546894 -9.5445557 -14.366408
3.5546894 -9.5445557 -14.366408
5.3810306 -9.5708494 -14.357128
3.5457501 -9.4430933 -14.339213
3.6259966 -9.4401112 -14.311176
5.161685 -9.2939987 -14.30526
5.161685 -9.2939987 -14.30526
5.161685 -9.2939987 -14.30526
1.1585046 -8.6608171 -14.387003
1.6831359 -8.6811371 -14.369168
1.8511109 -8.3265419 -14.321916
1.8511109 -8.3265419 -14.321916
8.0220642 -19.417732 -14.253182
8.0076246 -19.387505 -14.297125
8.6457205 -18.583492 -14.249497
6.2042861 -10.713096 -14.236171
6.2042861 -10.713096 -14.236171
5.8517466 -9.6252098 -14.26871
5.8517466 -9.6252098 -14.26871
3.9601264 -9.2508087 -14.264998
5.3903351 -9.0483713 -14.217825
2.2329762 -8.6803856 -14.267632
2.7461402 -8.4746189 -14.212507
-4.7415257 -6.8438921 -14.276167
-4.6687875 -6.8171291 -14.260153
8.6092129 -18.745836 -14.129658
8.6092129 -18.745836 -14.129658
1.6730847 -18.684639 -14.120563
15.656412 -12.084625 -14.102092
15.656412 -12.084625 -14.102092
4.4937305 -9.1128006 -14.16641
4.4937305 -9.1128006 -14.16641
4.4937305 -9.1128006 -14.16641
4.213903 -8.578927 -14.143932
3.5511692 -8.4410543 -14.134433
3.8485188 -8.4448986 -14.14076
3.9672549 -8.4380856 -14.123584
4.4025841 -8.3958883 -14.109927
-2.4036367 -6.8627491 -14.18129
-3.8524125 -6.0393548 -14.147311
-6.1367455 -5.439229 -14.19013
-4.5433426 -5.4207554 -14.145283
-7.9499474 -4.5481448 -14.120277
2.9497747 -10.386909 -14.060501
2.9497747 -10.386909 -14.060501
7.5615311 -9.5583935 -14.05088
7.5615311 -9.5583935 -14.05088
7.652308 -9.4959774 -14.087353
7.652308 -9.4959774 -14.087353
7.0911069 -9.2133579 -14.091761
7.0911069 -9.2133579 -14.091761
3.8661504 -8.1399336 -14.061612
3.940515 -8.1588116 -14.058969
3.2245831 -8.0769548 -14.028699
1.5471228 -7.5339317 -14.055774
-0.67578983 -6.9038272 -14.029598
-0.67578983 -6.9038272 -14.029598
-0.43761349 -6.6837029 -14.018591
-2.0503418 -6.3540559 -14.056293
-2.6545491 -6.0552034 -14.033733
-4.7971478 -5.0636783 -14.02284
8.3661165 -19.156828 -13.963413
15.031282 -11.57793 -13.93038
15.031282 -11.57793 -13.93038
13.459033 -11.274734 -13.966934
14.174789 -11.182783 -13.90358
14.174789 -11.182783 -13.90358
6.460638 -10.401377 -13.914738
6.460638 -10.401377 -13.914738
2.5455744 -10.300683 -13.9375
2.5363767 -10.288632 -13.987313
7.324573 -8.8447905 -13.947357
8.9774122 -8.6893606 -13.901828
8.9774122 -8.6893606 -13.901828
5.6102171 -8.3058119 -13.973453
3.1839564 -8.1018553 -13.954602
5.3554187 -8.134922 -13.946511
5.3554187 -8.134922 -13.946511
5.3554187 -8.134922 -13.946511
7.2656498 -8.1705151 -13.900471
7.2656498 -8.1705151 -13.900471
4.0921006 -8.0116997 -13.997991
5.0437117 -8.0494022 -13.916844
3.4478979 -7.7643127 -13.974885
2.8958511 -7.5842752 -13.959553
0.26693407 -6.7409987 -13.943545
0.75194091 -6.7445645 -13.910324
-0.45049626 -6.6440072 -13.988029
-1.9455466 -6.1522827 -13.988145
-5.2683516 -5.0436058 -13.984282
-5.2683516 -5.0436058 -13.984282
-7.9605012 -4.1227036 -13.995953
-7.1476388 -3.9593937 -13.911632
-8.063714 -3.7394679 -13.912168
-13.051262 -2.5315371 -13.988171
-13.051205 -2.4472814 -13.944457
-13.537849 -2.1830947 -13.950574
15.295896 -12.106875 -13.811675
16.057293 -12.04493 -13.821594
16.057293 -12.04493 -13.821594
15.244749 -11.730649 -13.867126
15.244749 -11.730649 -13.867126
15.360531 -11.723936 -13.875991
15.434675 -11.727125 -13.851014
15.837135 -11.742723 -13.859785
15.945898 -11.681496 -13.801921
13.830991 -11.273543 -13.881607
13.830991 -11.273543 -13.881607
13.830991 -11.273543 -13.881607
14.391995 -11.186996 -13.844983
13.27305 -10.838251 -13.818526
12.657164 -10.644955 -13.800405
12.657164 -10.644955 -13.800405
12.0707 -10.44427 -13.811274
12.0707 -10.44427 -13.811274
2.5554781 -10.312566 -13.887213
9.1359367 -9.4074078 -13.899939
6.8291931 -8.4079351 -13.878532
6.7362351 -8.2259779 -13.813883
1.8010656 -7.734304 -13.897016
1.1308697 -6.818697 -13.881658
0.2571477 -6.4492583 -13.861705
0.78308451 -6.4782629 -13.816092
0.78308451 -6.4782629 -13.816092
-0.15818894 -6.3562188 -13.87294
-0.26724112 -5.9883299 -13.800065
-5.2184467 -4.2594857 -13.809333
-5.2184467 -4.2594857 -13.809333
-4.3240194 -4.2533488 -13.816361
-7.5436273 -3.9300745 -13.884892
-7.5436273 -3.9300745 -13.884892
-8.9674845 -2.9375637 -13.812164
-12.087006 -2.6102922 -13.837559
-11.987255 -2.5696352 -13.815167
-11.85079 -2.4267704 -13.870621
-12.105725 -2.3422999 -13.891378
-12.105725 -2.3422999 -13.891378
-12.866455 -2.277555 -13.896803
-13.295801 -2.0539432 -13.893856
-13.295801 -2.0539432 -13.893856
-12.623138 -2.0516527 -13.839573
-9.8442097 -2.0648885 -13.869688
-9.8442097 -2.0648885 -13.869688
-11.874379 -1.9765644 -13.848027
8.7114754 -18.67671 -13.792302
-17.128485 -16.117538 -13.720098
-17.128485 -16.117538 -13.720098
16.157051 -12.033648 -13.765848
16.157051 -12.033648 -13.765848
16.20923 -12.038754 -13.703551
16.444572 -11.522736 -13.738233
16.139885 -11.355886 -13.703328
15.152336 -11.267641 -13.777105
14.064078 -10.93565 -13.766422
13.520687 -10.830834 -13.778768
13.520687 -10.830834 -13.778768
14.612984 -10.837332 -13.73261
14.774335 -10.730609 -13.730753
12.733006 -10.614857 -13.799912
14.37315 -10.641991 -13.725975
12.768394 -10.55972 -13.783083
3.1533039 -10.436082 -13.74577
12.813203 -10.446111 -13.745749
13.36908 -10.392383 -13.715631
11.941252 -10.184061 -13.712204
11.76787 -9.9914637 -13.719882
11.76787 -9.9914637 -13.719882
9.2877254 -8.5897636 -13.707032
7.1143799 -7.8594913 -13.779497
5.3749886 -7.5326371 -13.768717
5.3749886 -7.5326371 -13.768717
5.1546001 -7.296052 -13.714868
2.8521941 -6.9352951 -13.76842
3.6641488 -6.9886508 -13.718047
1.5278702 -6.664607 -13.789819
1.5278702 -6.664607 -13.789819
1.5278702 -6.664607 -13.789819
-0.025472226 -6.202353 -13.796743
-0.25161827 -5.6599469 -13.713426
-3.3656628 -4.5725994 -13.708107
-5.4334836 -4.0549197 -13.783743
-5.5458632 -3.7580862 -13.729375
-5.5458632 -3.7580862 -13.729375
-6.1589007 -3.460784 -13.712052
-6.1589007 -3.460784 -13.712052
-6.4733286 -3.2474718 -13.710412
-8.2566166 -2.9588852 -13.717056
-9.1533794 -2.8180161 -13.776683
-9.056448 -2.8584578 -13.784153
-9.9973545 -2.4355998 -13.763964
-12.583643 -2.0889921 -13.781005
-12.066233 -2.064394 -13.794676
-12.066233 -2.064394 -13.794676
-13.221378 -1.5796579 -13.748941
-13.221378 -1.5796579 -13.748941
-13.221378 -1.5796579 -13.748941
-13.221378 -1.5796579 -13.748941
-12.377366 -1.4683697 -13.723856
-12.377366 -1.4683697 -13.723856
-13.887871 -1.1141624 -13.700995
8.7538252 -18.945211 -13.633609
8.7538252 -18.945211 -13.633609
15.647981 -12.105582 -13.681352
16.677313 -11.378653 -13.695513
16.714121 -11.335236 -13.678087
16.714121 -11.335236 -13.678087
15.807293 -10.940145 -13.639465
15.238194 -10.839258 -13.655213
16.033796 -10.797947 -13.607952
13.00669 -10.321044 -13.693415
13.00669 -10.321044 -13.693415
12.385129 -10.217235 -13.697454
12.13294 -9.9995222 -13.662053
12.760263 -9.9686565 -13.615353
13.231114 -9.8887415 -13.619853
6.3543606 -7.6357651 -13.62623
6.4396186 -7.6382065 -13.620938
5.3371611 -7.1452188 -13.647575
5.3371611 -7.1452188 -13.647575
2.328619 -6.5394349 -13.691133
2.328619 -6.5394349 -13.691133
2.328619 -6.5394349 -13.691133
2.328619 -6.5394349 -13.691133
3.2733335 -6.4822087 -13.603518
3.2733335 -6.4822087 -13.603518
2.9511507 -6.3610349 -13.632459
2.9511507 -6.3610349 -13.632459
1.9377433 -6.1558337 -13.636006
-0.39104059 -5.2977104 -13.61721
-4.557044 -4.0390825 -13.699574
-5.7285814 -3.5243332 -13.687941
-5.7285814 -3.5243332 -13.687941
-4.9464717 -3.3513858 -13.657282
-5.0886908 -3.0942421 -13.618953
-7.449995 -2.8626454 -13.623492
-7.449995 -2.8626454 -13.623492
-12.938658 -1.474401 -13.685383
-12.938658 -1.474401 -13.685383
-12.351719 -1.4278904 -13.652059
-12.351719 -1.4278904 -13.652059
-12.351719 -1.4278904 -13.652059
-13.816847 -1.148826 -13.679369
-13.816847 -1.148826 -13.679369
-13.816847 -1.148826 -13.679369
-10.659327 -1.1456416 -13.618935
-13.310677 -0.89576983 -13.616845
-14.286716 -0.69177639 -13.652527
-15.265153 -0.40976259 -13.617779
-14.913767 -0.46853128 -13.608579
8.7486296 -18.955057 -13.54969
16.388081 -11.875009 -13.50714
16.978266 -11.079401 -13.510462
16.378078 -10.846426 -13.545424
14.851666 -10.50471 -13.593822
14.851666 -10.50471 -13.593822
2.5558481 -10.402946 -13.51339
3.0449417 -10.484868 -13.558578
14.716586 -10.256442 -13.573985
14.112519 -10.143175 -13.578888
12.979744 -9.8489113 -13.574926
13.014925 -9.7564449 -13.560534
12.086768 -9.6849394 -13.594781
12.086768 -9.6849394 -13.594781
12.086768 -9.6849394 -13.594781
12.661507 -9.6816826 -13.544142
12.736662 -9.6426773 -13.5488
13.055997 -9.6534014 -13.540378
3.3472214 -6.5116439 -13.593579
2.3021414 -6.202158 -13.596165
2.8758156 -6.1480002 -13.577604
1.6469207 -6.0212889 -13.582901
1.6469207 -6.0212889 -13.582901
2.6578698 -6.0288506 -13.523739
-0.44875211 -4.9499674 -13.539129
-3.2434566 -3.954865 -13.513367
-4.7248611 -3.5673442 -13.583538
-5.667469 -3.3569293 -13.535398
-5.569418 -3.3282871 -13.539809
-5.2584567 -3.033 -13.570745
-5.044096 -3.0441601 -13.59573
-7.0511069 -2.7361503 -13.538576
-8.6382446 -2.1405251 -13.53753
-10.374515 -1.2175975 -13.53431
-10.665781 -1.1506274 -13.592467
-14.046039 -0.45377871 -13.549538
-14.046039 -0.45377871 -13.549538
-14.449824 -0.34287989 -13.531967
-17.072647 -17.157227 -13.466358
16.916054 -11.813977 -13.444386
16.916054 -11.813977 -13.444386
16.484264 -10.571746 -13.432191
15.799507 -10.203297 -13.406912
15.799507 -10.203297 -13.406912
3.9391782 -6.1619568 -13.468444
4.2452936 -6.151772 -13.430966
4.2475691 -6.0617843 -13.40376
2.6686504 -5.9362917 -13.484147
0.67667103 -5.4220581 -13.498497
1.7593908 -5.4520159 -13.432485
1.7326437 -5.3903136 -13.417495
-0.15430035 -4.8448825 -13.444119
-0.25065741 -4.7431264 -13.431582
-0.65212923 -4.4866962 -13.405441
-3.2443976 -3.921217 -13.498411
-3.2443976 -3.921217 -13.498411
-5.45081 -3.2573602 -13.495873
-5.1469188 -2.6609833 -13.474571
-6.9592414 -2.5476396 -13.493665
-4.8864293 -2.5964789 -13.448178
-4.8864293 -2.5964789 -13.448178
-7.2514033 -2.4350913 -13.476395
-7.3834581 -2.1998684 -13.415015
-8.1458426 -2.0660641 -13.459605
-13.084415 -0.72786272 -13.431706
-15.00282 0.1443633 -13.450151
-15.612626 0.44194975 -13.409127
-17.109287 -16.926487 -13.344831
16.889244 -10.856711 -13.399019
16.889244 -10.856711 -13.399019
2.7677646 -10.369713 -13.385437
16.436867 -10.234959 -13.332381
16.436867 -10.234959 -13.332381
16.686871 -10.256427 -13.342405
12.840881 -9.1630802 -13.397689
5.0426607 -6.329217 -13.382291
5.6011662 -6.3159542 -13.357411
5.6011662 -6.3159542 -13.357411
4.6465116 -6.1545362 -13.366959
4.9434114 -6.059423 -13.330727
3.3599143 -5.835094 -13.38589
3.3599143 -5.835094 -13.38589
3.3599143 -5.835094 -13.38589
3.1515155 -5.6495051 -13.376788
0.077378027 -4.8215628 -13.386505
-2.2474427 -3.9415967 -13.382676
-2.2474427 -3.9415967 -13.382676
-2.2529218 -3.6476631 -13.31603
-5.6675034 -2.737716 -13.388512
-5.2511659 -2.1470673 -13.322398
-5.2511659 -2.1470673 -13.322398
-7.3387346 -1.8353887 -13.303673
-8.5756969 -1.5551364 -13.359724
-8.5756969 -1.5551364 -13.359724
-9.7506323 -1.0251228 -13.3658
-9.7506323 -1.0251228 -13.3658
-9.7506323 -1.0251228 -13.3658
-10.647087 -0.70381981 -13.306515
-12.923419 -0.50285739 -13.349587
-12.923419 -0.50285739 -13.349587
-11.05356 -0.44531363 -13.334875
-13.102121 -0.31037432 -13.305369
-13.165199 -0.27275294 -13.319353
-14.167271 0.18926656 -13.338277
-14.167271 0.18926656 -13.338277
-14.167271 0.18926656 -13.338277
-14.878669 0.35690793 -13.397292
-15.640636 0.48363093 -13.398976
-14.933393 0.43528974 -13.372277
-14.933393 0.43528974 -13.372277
16.723759 -10.468337 -13.279283
3.6721318 -5.6007919 -13.292848
3.9540248 -5.6475205 -13.284018
3.2464416 -5.3530707 -13.283672
3.2464416 -5.3530707 -13.283672
3.2467353 -5.2631836 -13.253888
1.5436579 -4.7543931 -13.241612
1.5608673 -4.6621766 -13.218204
1.5608673 -4.6621766 -13.218204
-5.2975211 -2.4528573 -13.271091
-5.2975211 -2.4528573 -13.271091
-6.7318296 -2.0122094 -13.297543
-7.0412269 -1.83942 -13.286538
-7.0412269 -1.83942 -13.286538
-7.3524246 -1.659708 -13.251967
-6.8437643 -1.6531599 -13.230077
-6.8437643 -1.6531599 -13.230077
-7.4689932 -1.3720361 -13.206926
-8.9060755 -1.1384926 -13.216492
-10.378416 -0.84537554 -13.288038
-10.341126 -0.64736205 -13.245346
-9.8950777 -0.60920835 -13.22079
-10.326582 -0.5509277 -13.205888
-10.326582 -0.5509277 -13.205888
16.990221 -10.759227 -13.16386
16.991707 -10.659261 -13.139621
3.2064979 -10.342668 -13.103567
18.277042 -10.159962 -13.180307
17.52364 -10.019667 -13.183873
17.941849 -10.048461 -13.160267
18.566246 -10.065475 -13.126108
18.566246 -10.065475 -13.126108
17.555695 -9.9321308 -13.140306
17.370071 -9.8330355 -13.112595
4.7206793 -5.1901884 -13.110671
2.459867 -4.759831 -13.180209
2.459867 -4.759831 -13.180209
2.459867 -4.759831 -13.180209
2.459867 -4.759831 -13.180209
3.0468864 -4.773757 -13.106885
2.2250009 -4.4952917 -13.101555
-5.941051 -1.6457516 -13.186089
-5.941051 -1.6457516 -13.186089
-5.1426239 -1.4545496 -13.116635
-7.6027813 -1.3100076 -13.197443
-7.6027813 -1.3100076 -13.197443
-7.0585456 -1.3466582 -13.151232
-7.0585456 -1.3466582 -13.151232
-6.1577439 -1.3709408 -13.115921
-6.1577439 -1.3709408 -13.115921
-5.2008224 -1.3590744 -13.114519
-5.2008224 -1.3590744 -13.114519
-8.26266 -1.1284322 -13.191175
-8.26266 -1.1284322 -13.191175
-7.9580584 -0.8838315 -13.11817
-10.539131 -0.23423332 -13.166037
-10.976867 -0.024655744 -13.12676
-10.865091 0.12769087 -13.19883
-11.56523 0.23373656 -13.163079
3.2259932 -10.374971 -13.074997
17.334047 -10.323238 -13.047945
17.746099 -10.314361 -13.039249
17.746099 -10.314361 -13.039249
18.847233 -10.15028 -13.050125
4.657692 -5.1386352 -13.077317
3.9726365 -4.9521232 -13.057693
3.0474584 -4.7403593 -13.080317
3.1496241 -4.7440147 -13.080566
3.1496241 -4.7440147 -13.080566
1.4220083 -4.4303703 -13.079247
1.4220083 -4.4303703 -13.079247
3.0623827 -4.4850502 -13.011673
3.0623827 -4.4850502 -13.011673
1.2462136 -4.1419725 -13.074904
2.0277827 -4.0823474 -13.005756
-4.8059864 -1.7001367 -13.097561
-4.3586807 -1.6476927 -13.014091
-5.1442823 -1.4223244 -13.070091
-4.6594324 -1.3587539 -13.017616
-8.1407766 -0.65305948 -13.040924
-9.1662035 -0.5305512 -13.043844
-7.7435327 -0.56755728 -13.005891
-7.7435327 -0.56755728 -13.005891
-7.2177873 -0.57833719 -13.008078
-7.2177873 -0.57833719 -13.008078
-7.1963758 -0.59499967 -13.017967
-9.2443171 -0.44140369 -13.061104
-9.2443171 -0.44140369 -13.061104
-9.8029184 -0.3149761 -13.066416
-8.3138618 -0.37554872 -13.000256
-8.3138618 -0.37554872 -13.000256
-8.3138618 -0.37554872 -13.000256
-10.152438 -0.050362568 -13.058357
17.204372 -11.277915 -12.93412
17.204372 -11.277915 -12.93412
17.204372 -11.277915 -12.93412
17.089233 -11.019446 -12.921517
17.089233 -11.019446 -12.921517
18.849655 -10.170533 -12.960251
18.759546 -9.545125 -12.997688
18.759546 -9.545125 -12.997688
6.0444074 -5.1456509 -12.953819
6.0444074 -5.1456509 -12.953819
3.5368135 -4.455832 -12.954699
4.1573606 -4.4480662 -12.924026
4.3621931 -4.4682627 -12.916402
4.4665833 -4.485477 -12.91807
4.4665833 -4.485477 -12.91807
2.5528994 -4.2368431 -12.982995
3.7499726 -4.2854481 -12.902716
2.7410922 -3.9915078 -12.90072
1.4472287 -3.7545545 -12.946316
-3.4303684 -1.5607961 -12.903625
-6.4822564 -0.48602158 -12.908352
-7.4465013 -0.35464674 -12.932401
-7.8438888 -0.25999916 -12.917491
-7.8438888 -0.25999916 -12.917491
-9.6947393 -0.13330401 -12.998164
-8.1768723 -0.18220377 -12.948253
-9.9351635 0.21201889 -12.959606
-10.565815 0.60120344 -12.911209
3.6566963 -11.059432 -12.805025
17.187157 -10.342367 -12.840033
17.187157 -10.342367 -12.840033
17.187157 -10.342367 -12.840033
19.180548 -9.7982988 -12.876215
6.8450131 -5.2366228 -12.860826
3.748831 -4.2522016 -12.879528
2.1586785 -3.8251522 -12.894886
2.1586785 -3.8251522 -12.894886
2.1586785 -3.8251522 -12.894886
1.347422 -3.6320274 -12.889172
1.4625281 -3.173511 -12.825509
1.6204978 -3.1208639 -12.822089
-0.44193205 -2.5568385 -12.80767
-0.44193205 -2.5568385 -12.80767
-4.6501827 -0.9506613 -12.880397
-7.1410747 -0.05945937 -12.826718
-7.1410747 -0.05945937 -12.826718
-9.2822218 0.093553744 -12.861856
-9.4833403 0.20038012 -12.856675
-10.039881 0.46186239 -12.869054
-10.283196 0.59373838 -12.832671
-10.068446 0.53546411 -12.870724
-10.584221 0.65593195 -12.868599
-10.584221 0.65593195 -12.868599
-11.128921 0.70629716 -12.883599
-11.128921 0.70629716 -12.883599
-10.897449 0.88720667 -12.810733
-10.897449 0.88720667 -12.810733
17.109423 -11.67097 -12.706352
17.109423 -11.67097 -12.706352
18.837873 -9.861351 -12.753643
9.3374634 -5.6273823 -12.717602
9.3374634 -5.6273823 -12.717602
9.040184 -5.5442524 -12.772171
5.3596225 -4.4446197 -12.784548
5.3596225 -4.4446197 -12.784548
5.4577103 -4.4613285 -12.783291
6.246716 -4.4510293 -12.745229
6.3681936 -4.1599474 -12.707114
2.7527618 -3.7440503 -12.778008
0.59106594 -2.9271171 -12.799402
1.3521812 -2.9467776 -12.720864
-3.4678628 -0.7977162 -12.705151
-5.1119671 -0.64578044 -12.796668
-5.1119671 -0.64578044 -12.796668
-5.0811462 -0.62270445 -12.773567
-4.7507915 -0.34737176 -12.740592
-5.3466454 -0.24353461 -12.728842
-4.7450213 -0.25486642 -12.743167
-11.554088 1.5952866 -12.738316
-11.554088 1.5952866 -12.738316
-11.247429 2.1490436 -12.75066
-11.866488 2.6288424 -12.742235
-11.866488 2.6288424 -12.742235
2.687537 -10.676847 -12.684371
2.687537 -10.676847 -12.684371
2.687537 -10.676847 -12.684371
2.4657776 -10.497745 -12.678443
2.4657776 -10.497745 -12.678443
10.120582 -5.3844414 -12.630019
5.3271117 -4.2066584 -12.699075
5.7591262 -3.9428356 -12.638628
5.9380894 -3.8416579 -12.63759
5.9380894 -3.8416579 -12.63759
6.0483518 -3.8461735 -12.623744
5.8624396 -3.7592912 -12.631765
1.7653217 -3.0282052 -12.697388
1.7653217 -3.0282052 -12.697388
2.6482453 -2.8826125 -12.604954
2.6482453 -2.8826125 -12.604954
2.0433159 -2.7669532 -12.611509
-2.3463268 -1.3240709 -12.692552
-2.2504039 -1.3340126 -12.690427
-4.145555 -0.60640544 -12.693158
-5.5504336 0.14278156 -12.638543
-4.8499403 0.33632585 -12.65694
-6.2993426 0.50815332 -12.606406
-6.2993426 0.50815332 -12.606406
-6.2993426 0.50815332 -12.606406
-7.3186603 0.62018317 -12.603107
-8.5501204 1.0452523 -12.676469
-8.5501204 1.0452523 -12.676469
-9.1379719 1.3468556 -12.641325
-9.1379719 1.3468556 -12.641325
-9.1379719 1.3468556 -12.641325
-9.2317991 1.8612094 -12.608109
-9.2317991 1.8612094 -12.608109
-9.2317991 1.8612094 -12.608109
-9.5445614 2.057066 -12.61038
-9.5445614 2.057066 -12.61038
-10.220087 2.4560251 -12.61779
2.9466178 -10.820015 -12.537403
17.008495 -10.841888 -12.574555
16.949581 -10.671846 -12.574886
18.150497 -10.076124 -12.5438
18.652119 -9.9837723 -12.572456
18.652119 -9.9837723 -12.572456
18.883995 -9.8849545 -12.563117
22.652306 -9.4084692 -12.533729
22.699005 -9.3693762 -12.53196
22.699005 -9.3693762 -12.53196
22.672354 -9.2720928 -12.528839
11.143993 -5.3933015 -12.51877
9.0326052 -4.5257545 -12.513631
9.8131695 -4.3087306 -12.504922
9.8131695 -4.3087306 -12.504922
4.7495217 -3.446454 -12.548744
6.1271505 -3.3657103 -12.502106
6.3137341 -3.3584678 -12.529592
2.260932 -2.9147906 -12.592921
1.3102561 -2.0814822 -12.500852
-0.35013771 -1.7489359 -12.567507
-3.1463993 -0.61071354 -12.594676
-3.1463993 -0.61071354 -12.594676
-3.0412786 -0.36443642 -12.507498
-3.56826 -0.084871948 -12.508151
-3.56826 -0.084871948 -12.508151
-6.2463303 0.55144191 -12.59068
-6.2463303 0.55144191 -12.59068
-7.2487602 0.85446155 -12.56255
-7.049757 0.95153087 -12.533772
-7.695652 1.0399036 -12.536839
-8.8700123 1.398784 -12.561683
-8.910532 1.6878177 -12.545345
-8.2978897 1.8135822 -12.517671
-10.075652 2.1380634 -12.592926
-9.7470436 2.2397101 -12.506565
16.68922 -11.877699 -12.466556
16.68922 -11.877699 -12.466556
16.68922 -11.877699 -12.466556
16.68922 -11.877699 -12.466556
3.2940819 -10.906796 -12.412046
3.3658268 -10.938617 -12.435841
3.3658268 -10.938617 -12.435841
24.081747 -9.2191811 -12.418559
24.081747 -9.2191811 -12.418559
23.3566 -9.0834293 -12.43644
23.3566 -9.0834293 -12.43644
24.108128 -9.0724659 -12.419725
12.154959 -5.3827233 -12.446529
12.154959 -5.3827233 -12.446529
10.09947 -5.1547565 -12.497995
10.09947 -5.1547565 -12.497995
0.44921038 -1.6528565 -12.463447
0.44921038 -1.6528565 -12.463447
-0.31408361 -1.5014467 -12.498617
-0.83540869 -1.3082509 -12.497827
-0.73975623 -1.3230441 -12.49213
-0.19437407 -1.1887814 -12.408067
-2.9352975 -0.41570324 -12.494411
-2.9352975 -0.41570324 -12.494411
-7.7755184 1.7124995 -12.408648
-7.7755184 1.7124995 -12.408648
-8.2856703 2.1296079 -12.421366
-9.761097 2.2488225 -12.437379
-9.3457003 2.2511771 -12.437089
-9.3457003 2.2511771 -12.437089
20.533026 -12.421658 -12.355468
20.802284 -12.227253 -12.343312
3.1774735 -11.618391 -12.303067
16.965506 -11.56693 -12.344046
16.965506 -11.56693 -12.344046
16.965506 -11.56693 -12.344046
2.8469021 -11.170868 -12.362966
3.6311104 -11.134024 -12.353761
3.334029 -10.942117 -12.356643
17.928097 -10.324183 -12.383648
17.928097 -10.324183 -12.383648
22.041195 -9.7158337 -12.356372
22.041195 -9.7158337 -12.356372
22.041195 -9.7158337 -12.356372
24.36145 -8.939805 -12.34573
23.35375 -8.8642635 -12.371544
11.667587 -5.154295 -12.393564
11.547523 -4.8516273 -12.313964
10.744985 -4.658833 -12.335831
10.455822 -4.4553246 -12.356495
10.919842 -4.4949541 -12.301572
5.8529167 -2.9315596 -12.371846
5.6400495 -2.7522507 -12.327834
2.8553457 -1.9679917 -12.309046
-0.57384223 -1.1004117 -12.390525
-1.9283754 -0.71561193 -12.392574
-1.4395694 -0.65542251 -12.386429
-1.156085 -0.54705304 -12.318829
-2.1481171 -0.25248593 -12.374527
-2.8621731 0.31494623 -12.307508
-2.7398956 0.34313557 -12.302014
-9.4813538 2.5542595 -12.352475
21.177536 -12.60104 -12.241045
18.177206 -12.051301 -12.232717
18.177206 -12.051301 -12.232717
17.178865 -11.857692 -12.263735
3.6229458 -11.128725 -12.297604
16.905085 -10.373944 -12.294177
18.634998 -10.01919 -12.268168
23.181377 -8.4656315 -12.262632
22.943363 -8.3227167 -12.230313
23.143019 -8.3549118 -12.226741
11.764649 -4.7510247 -12.25284
11.272789 -4.6516972 -12.273936
11.740329 -4.6768508 -12.239141
10.626096 -4.1428409 -12.211426
10.761063 -4.1596661 -12.211313
10.761063 -4.1596661 -12.211313
9.7341042 -4.0491128 -12.231621
9.7341042 -4.0491128 -12.231621
10.045811 -3.9683244 -12.203232
6.9469428 -2.5592091 -12.213552
6.9469428 -2.5592091 -12.213552
7.3010197 -2.5816405 -12.209021
6.0594783 -2.4668293 -12.238087
5.2574096 -2.1872396 -12.212337
5.2574096 -2.1872396 -12.212337
-1.3335335 -0.34242117 -12.291765
-1.2449635 -0.35518032 -12.273245
-0.8421964 -0.35050142 -12.2325
-0.8421964 -0.35050142 -12.2325
-1.33887 -0.25087905 -12.278016
-1.33887 -0.25087905 -12.278016
-0.85661721 -0.26087421 -12.211123
-5.8531375 1.5503426 -12.267044
-4.9835606 1.5013368 -12.212685
26.818485 -12.433707 -12.134832
26.818485 -12.433707 -12.134832
16.272646 -11.988034 -12.120083
16.272646 -11.988034 -12.120083
16.645386 -11.915639 -12.141829
3.5397034 -11.651061 -12.164538
18.105219 -11.658203 -12.132314
18.105219 -11.658203 -12.132314
17.56492 -11.590007 -12.18303
17.56492 -11.590007 -12.18303
16.770782 -10.507081 -12.142471
22.599985 -9.6929674 -12.172295
24.117691 -9.3838577 -12.14286
23.494062 -8.2829914 -12.194839
23.756409 -8.0470505 -12.108953
23.756409 -8.0470505 -12.108953
23.756409 -8.0470505 -12.108953
23.756409 -8.0470505 -12.108953
13.334713 -4.742517 -12.103731
13.334713 -4.742517 -12.103731
13.334713 -4.742517 -12.103731
11.760853 -4.3735423 -12.147348
11.760853 -4.3735423 -12.147348
11.760853 -4.3735423 -12.147348
5.6573362 -2.4334884 -12.190005
7.1363935 -2.1364446 -12.11616
7.0682244 -2.0739443 -12.169237
6.0549979 -1.777427 -12.106269
4.073442 -1.5755689 -12.102717
4.073442 -1.5755689 -12.102717
3.8022661 -1.481268 -12.100608
2.2497938 -1.1569806 -12.126914
1.9496465 -1.0522742 -12.131385
1.9496465 -1.0522742 -12.131385
-0.36706218 -0.70391053 -12.163031
-0.36706218 -0.70391053 -12.163031
0.39861795 -0.70511603 -12.193633
-0.040961508 -0.53805947 -12.188724
0.45306134 -0.5527283 -12.141715
0.54372209 -0.46903095 -12.106185
-0.049334563 -0.35558948 -12.142549
-0.049406849 -0.25844327 -12.115693
-0.57701963 0.01837042 -12.104141
-6.3435974 2.1354575 -12.148045
-6.3435974 2.1354575 -12.148045
-6.3435974 2.1354575 -12.148045
-6.3435974 2.1354575 -12.148045
26.994244 -12.796521 -12.000048
3.3058491 -10.870063 -12.095251
20.941818 -10.19402 -12.086477
18.951788 -9.9305477 -12.073033
21.999102 -9.9226084 -12.070065
22.042065 -9.9280567 -12.00893
19.162197 -9.8509436 -12.072694
24.361359 -9.4573259 -12.047789
24.056263 -8.1098738 -12.075641
12.512602 -4.2685084 -12.02795
9.5675182 -3.4452107 -12.043934
9.8639774 -3.4457352 -12.033473
10.060561 -3.433274 -12.040012
9.5690842 -3.3557236 -12.017205
9.5690842 -3.3557236 -12.017205
9.37778 -3.0409391 -12.059222
9.37778 -3.0409391 -12.059222
9.6004705 -2.8976052 -12.016414
7.5384507 -1.9590063 -12.016152
7.5384507 -1.9590063 -12.016152
4.5718489 -1.8330253 -12.09715
4.2771163 -1.7179344 -12.096613
3.9009004 -1.1887506 -12.007334
1.6635058 -0.80840445 -12.098308
0.55545384 -0.43078694 -12.093601
1.4430952 -0.46482053 -12.014324
-0.24759966 0.050696716 -12.053862
0.043786936 0.046093993 -12.024868
0.043786936 0.046093993 -12.024868
-1.1520803 0.28205186 -12.093313
-1.5408334 0.47857493 -12.08837
26.251703 -13.116526 -11.999231
26.85006 -12.649755 -11.987743
17.536608 -11.960608 -11.945109
17.663702 -11.977773 -11.940237
18.073645 -11.911967 -11.988387
17.312059 -11.017291 -11.918942
3.0683789 -10.944559 -11.90798
3.1172745 -10.976345 -11.927624
17.066271 -10.620044 -11.90833
17.066271 -10.620044 -11.90833
21.543543 -10.685559 -11.905457
21.543543 -10.685559 -11.905457
21.764843 -10.008092 -11.924888
22.550507 -9.8250914 -11.919379
22.550507 -9.8250914 -11.919379
22.550507 -9.8250914 -11.919379
22.550507 -9.8250914 -11.919379
23.221107 -9.6492071 -11.925903
24.06855 -9.6073265 -11.947315
24.06855 -9.6073265 -11.947315
24.06855 -9.6073265 -11.947315
14.058358 -4.7257423 -11.976446
12.465003 -4.5798941 -11.994354
14.0303 -4.4587903 -11.938798
13.817129 -4.3220558 -11.90871
12.937651 -4.2305412 -11.949635
10.764912 -3.4714437 -11.954921
10.764912 -3.4714437 -11.954921
10.351233 -3.3384218 -11.983438
10.351233 -3.3384218 -11.983438
10.251252 -3.1366632 -11.931937
8.1113243 -1.9869912 -11.953247
8.2357893 -1.9712205 -11.97319
6.42805 -1.6563573 -11.989737
6.42805 -1.6563573 -11.989737
6.42805 -1.6563573 -11.989737
4.6543002 -1.4323938 -11.992529
4.6543002 -1.4323938 -11.992529
5.7429233 -1.4538587 -11.928357
5.7429233 -1.4538587 -11.928357
5.8169808 -1.3866655 -11.902544
3.9685946 -1.21988 -11.994824
2.6839168 -0.93462294 -11.99704
4.1492901 -0.89327472 -11.908279
2.1896944 -0.71593589 -11.998273
2.560236 -0.75106061 -11.982322
2.560236 -0.75106061 -11.982322
1.0340587 -0.59329629 -11.994735
1.0340587 -0.59329629 -11.994735
1.0340587 -0.59329629 -11.994735
1.7843266 -0.28230065 -11.913115
2.306078 -0.27253374 -11.900816
0.70050442 -0.15726084 -11.999377
-4.8202319 2.1036119 -11.993735
-8.1097708 3.7538066 -11.964453
27.309219 -12.607391 -11.818001
27.309219 -12.607391 -11.818001
15.773085 -12.040818 -11.849903
17.652401 -11.988643 -11.844141
21.626318 -11.792161 -11.882722
21.626318 -11.792161 -11.882722
22.019623 -11.428376 -11.806966
3.1239583 -10.986011 -11.880682
17.31147 -10.953363 -11.888954
22.110281 -10.616282 -11.827542
21.658314 -10.490638 -11.881694
21.743427 -10.441668 -11.871661
21.279522 -10.12276 -11.899263
21.348457 -10.163355 -11.862568
21.683662 -10.049506 -11.878877
21.683662 -10.049506 -11.878877
22.151014 -9.9983521 -11.84263
23.517868 -9.7172756 -11.807475
24.627241 -9.707325 -11.80936
24.66399 -9.6427507 -11.849708
24.613895 -9.592063 -11.897382
14.701506 -4.4438677 -11.857385
13.646752 -4.1542459 -11.841882
12.250778 -3.9141991 -11.892339
12.641843 -3.8610773 -11.816731
11.6609 -3.5601692 -11.827557
10.652467 -3.1584275 -11.840103
10.652467 -3.1584275 -11.840103
9.6420507 -2.548363 -11.858899
9.6420507 -2.548363 -11.858899
10.129933 -2.4191637 -11.86218
7.6421928 -1.4274676 -11.819035
7.4545336 -1.3953886 -11.815375
4.9962854 -1.2094492 -11.89537
5.951386 -1.0615801 -11.833842
4.0634422 -0.91115618 -11.897791
5.2461538 -0.95196038 -11.816638
3.3235714 -0.8129034 -11.892808
2.354166 -0.35016438 -11.876237
0.028141648 0.4589588 -11.88696
0.028141648 0.4589588 -11.88696
0.028141648 0.4589588 -11.88696
-6.9582076 3.3411725 -11.864757
-8.4080391 4.5861783 -11.832743
-8.4080391 4.5861783 -11.832743
27.420492 -12.965769 -11.702393
27.420492 -12.965769 -11.702393
22.032454 -12.049622 -11.782688
22.032454 -12.049622 -11.782688
16.533401 -11.91444 -11.729942
16.579432 -11.893988 -11.775646
18.090717 -11.798701 -11.78279
22.24744 -11.728379 -11.737354
22.24744 -11.728379 -11.737354
22.179947 -11.213696 -11.729709
22.329235 -11.243218 -11.700587
22.329235 -11.243218 -11.700587
22.22204 -11.160727 -11.710972
2.7611895 -10.922286 -11.738201
22.480217 -10.855717 -11.734144
17.91996 -10.760966 -11.717997
22.650414 -10.644886 -11.793169
22.996735 -10.682252 -11.745149
23.214045 -10.696431 -11.702985
17.732176 -10.547195 -11.778546
22.376041 -10.289379 -11.78767
22.862083 -10.263343 -11.71063
22.556349 -10.143671 -11.723749
22.556349 -10.143671 -11.723749
22.804333 -10.026763 -11.701477
22.958092 -9.8340721 -11.739269
22.958092 -9.8340721 -11.739269
22.958092 -9.8340721 -11.739269
23.059994 -9.8270159 -11.721796
14.47451 -3.9766283 -11.741794
12.560767 -3.7883275 -11.791098
13.553666 -3.6400061 -11.720974
14.570459 -3.6661274 -11.743248
14.570459 -3.6661274 -11.743248
14.570459 -3.6661274 -11.743248
11.837751 -3.5009108 -11.790101
11.935418 -3.446394 -11.790723
11.5646 -3.178899 -11.72747
12.073982 -3.0673242 -11.736424
11.623647 -2.9751987 -11.713136
10.506628 -2.6964877 -11.758998
10.506628 -2.6964877 -11.758998
10.563652 -2.0558205 -11.759879
10.563652 -2.0558205 -11.759879
6.2854137 -1.1176586 -11.798737
5.2701516 -0.91345024 -11.795927
5.2701516 -0.91345024 -11.795927
4.262207 -0.60713029 -11.796569
1.2389315 -0.45426533 -11.757885
3.3055003 -0.41672504 -11.797036
3.0893524 -0.20104891 -11.795845
4.2296104 -0.18552448 -11.702443
2.4714823 -0.034114733 -11.790984
2.5430005 -0.038970042 -11.788815
3.1502376 0.041394856 -11.722189
0.16019973 0.10832233 -11.754103
3.1429389 0.11748488 -11.703634
2.1907048 0.26436332 -11.761398
-0.45073736 1.2498194 -11.76398
-0.34931386 1.4375587 -11.704848
-0.34931386 1.4375587 -11.704848
-8.3443356 4.5975871 -11.744752
1.6579467 -12.057178 -11.609075
16.215509 -12.007756 -11.651505
17.044197 -11.942356 -11.623844
17.5641 -11.983953 -11.625125
18.210287 -11.880712 -11.68619
22.511063 -11.317943 -11.625661
22.553963 -10.956847 -11.675019
22.996861 -10.935112 -11.635805
22.996861 -10.935112 -11.635805
2.4981182 -10.849119 -11.661377
23.352341 -10.009783 -11.650779
23.352341 -10.009783 -11.650779
18.72963 -9.967967 -11.698661
18.72963 -9.967967 -11.698661
23.428047 -9.9683714 -11.65063
23.941448 -9.8400307 -11.678469
23.941448 -9.8400307 -11.678469
13.753722 -3.8729858 -11.696043
14.9017 -3.8366005 -11.652088
14.9017 -3.8366005 -11.652088
14.9017 -3.8366005 -11.652088
13.130785 -3.6453099 -11.693436
13.130785 -3.6453099 -11.693436
14.199843 -3.5820858 -11.661689
15.281801 -3.5609541 -11.64753
15.281801 -3.5609541 -11.64753
15.451738 -3.4423676 -11.633425
15.451738 -3.4423676 -11.633425
12.520746 -3.1108239 -11.699675
12.837084 -3.1527209 -11.650849
11.576222 -2.7820342 -11.626892
11.576222 -2.7820342 -11.626892
11.998975 -2.7683079 -11.628573
11.998975 -2.7683079 -11.628573
12.276188 -2.6645267 -11.601398
11.220661 -2.1791036 -11.633202
8.6649914 -1.4454197 -11.692242
8.1605005 -1.072795 -11.61011
6.8573127 -0.91768438 -11.688943
7.1664324 -0.94503039 -11.66097
7.1664324 -0.94503039 -11.66097
5.0557809 -0.44204286 -11.68875
5.8471045 -0.27238944 -11.613002
5.8471045 -0.27238944 -11.613002
3.881763 -0.1089007 -11.699106
4.253489 -0.15120536 -11.678845
5.6179304 -0.08760611 -11.610661
4.7216682 0.010550187 -11.604101
4.7216682 0.010550187 -11.604101
3.0674062 0.18248354 -11.694783
4.3251266 0.11120033 -11.602843
3.4552686 0.40744168 -11.603444
3.0419235 0.51220703 -11.603552
2.3796492 0.62737352 -11.630535
2.7834709 0.60579723 -11.600911
2.7834709 0.60579723 -11.600911
-0.076233581 1.247425 -11.697595
-0.25234637 1.4698974 -11.690154
-0.053366195 1.5440599 -11.641724
25.304623 -13.34514 -11.548537
25.505478 -13.345036 -11.592967
26.037952 -13.258164 -11.519815
27.588224 -12.525308 -11.590096
23.010206 -12.049767 -11.549982
23.162468 -12.008223 -11.541735
23.162468 -12.008223 -11.541735
17.836679 -11.875655 -11.545133
22.720089 -11.561913 -11.539332
23.241217 -11.575228 -11.523508
22.762316 -11.427757 -11.575155
23.265678 -11.024636 -11.512795
23.405275 -10.937835 -11.5063
23.809299 -10.606896 -11.548424
23.809299 -10.606896 -11.548424
23.910097 -10.572718 -11.557056
23.734297 -10.446583 -11.583178
24.224117 -10.453598 -11.52752
19.812918 -10.139002 -11.534192
23.742395 -10.137371 -11.575096
24.261013 -10.100613 -11.502759
24.519272 -9.8757114 -11.563191
13.931478 -3.0128729 -11.587944
15.957468 -3.0693209 -11.539405
15.957468 -3.0693209 -11.539405
15.957468 -3.0693209 -11.539405
14.969261 -2.9952898 -11.570601
14.969261 -2.9952898 -11.570601
13.640149 -2.6369085 -11.557623
13.533772 -2.486167 -11.532314
8.4530945 -1.0529809 -11.571204
9.503973 -1.0090809 -11.504048
7.8545656 -0.86331016 -11.577695
8.1429644 -0.85575253 -11.532628
7.5510879 -0.75535089 -11.569951
0.61010557 -0.39816111 -11.572257
0.61010557 -0.39816111 -11.572257
6.5560274 -0.25475776 -11.542321
6.6482754 -0.24839377 -11.542269
6.6482754 -0.24839377 -11.542269
4.3612232 0.08368127 -11.59509
4.0735841 0.18320993 -11.596733
3.4536958 0.45147592 -11.58212
3.4536958 0.45147592 -11.58212
3.9316578 0.61262631 -11.501408
3.9316578 0.61262631 -11.501408
2.3869312 0.86138248 -11.563155
2.3869312 0.86138248 -11.563155
2.6448317 1.0402166 -11.516
0.15092623 2.0548894 -11.518025
0.15092623 2.0548894 -11.518025
-0.74771929 2.1496959 -11.576359
-0.74771929 2.1496959 -11.576359
-0.74771929 2.1496959 -11.576359
-0.46048787 2.2284064 -11.51436
-0.46048787 2.2284064 -11.51436
-7.1352377 4.9294119 -11.529387
-7.1352377 4.9294119 -11.529387
-8.4156942 5.277185 -11.522272
-8.3271494 5.3622341 -11.529593
-8.5527 5.5791411 -11.579594
-8.5527 5.5791411 -11.579594
26.058187 -13.194596 -11.459398
1.8155326 -12.881658 -11.484604
2.8074253 -12.490857 -11.428555
15.009876 -12.018231 -11.426324
15.009876 -12.018231 -11.426324
15.481271 -12.023126 -11.46329
15.481271 -12.023126 -11.46329
15.555551 -12.005087 -11.472048
15.555551 -12.005087 -11.472048
17.337658 -11.982149 -11.43078
17.337658 -11.982149 -11.43078
1.745947 -11.668958 -11.40688
22.893501 -11.232544 -11.485705
22.893501 -11.232544 -11.485705
2.8176687 -11.022661 -11.469328
23.477657 -10.927621 -11.478095
24.713285 -10.220272 -11.497786
24.713285 -10.220272 -11.497786
24.87175 -10.267796 -11.485482
24.87175 -10.267796 -11.485482
18.473181 -10.11658 -11.498441
18.524401 -10.078662 -11.486711
13.567748 -3.0210488 -11.499694
15.66717 -2.8322482 -11.481193
15.66717 -2.8322482 -11.481193
15.66717 -2.8322482 -11.481193
15.277051 -2.5593278 -11.420325
15.277051 -2.5593278 -11.420325
13.308921 -2.3961408 -11.498508
12.963985 -2.2498815 -11.423094
11.947392 -2.0234501 -11.479176
12.244764 -2.0611584 -11.403433
11.635057 -1.7763567 -11.470127
11.635057 -1.7763567 -11.470127
9.1794395 -0.91867292 -11.486162
8.7494841 -0.65183479 -11.424653
8.7494841 -0.65183479 -11.424653
0.87622613 -0.56734234 -11.420372
0.87622613 -0.56734234 -11.420372
9.8655062 -0.57274735 -11.422174
0.80818439 -0.49554953 -11.464619
7.5535994 -0.45573908 -11.472819
7.8656793 -0.45400199 -11.436462
7.6352434 -0.24869135 -11.437925
6.050921 -0.0046494235 -11.489923
6.2700028 -0.033026733 -11.490427
5.9497738 0.056678314 -11.492925
6.4445853 0.25454023 -11.419751
6.4445853 0.25454023 -11.419751
6.4538636 0.33506462 -11.406388
0.096789263 2.0930805 -11.499718
-0.44943371 2.2702024 -11.491596
0.14479373 2.3476553 -11.423929
0.14479373 2.3476553 -11.423929
0.14479373 2.3476553 -11.423929
-8.4581137 5.2502227 -11.483037
-6.6634483 5.2331171 -11.403507
-7.6653676 5.6606483 -11.448257
-7.2629538 5.7064123 -11.476845
-7.2629538 5.7064123 -11.476845
24.68272 -13.427073 -11.318952
24.837799 -13.423691 -11.343915
24.972345 -13.412631 -11.361655
26.378448 -13.19278 -11.373193
27.033937 -13.107387 -11.337742
1.8131515 -12.877741 -11.351706
16.143509 -11.934627 -11.332033
16.234217 -11.908877 -11.337955
10.120452 -1.0201662 -11.318274
10.120452 -1.0201662 -11.318274
9.449131 -0.6029532 -11.389675
8.3469553 -0.4396573 -11.385495
8.3469553 -0.4396573 -11.385495
8.2586107 -0.36440679 -11.375762
8.6387377 -0.35426912 -11.346985
0.1818956 -0.20698571 -11.343498
0.1818956 -0.20698571 -11.343498
0.1818956 -0.20698571 -11.343498
7.9675875 0.040400513 -11.318518
7.9675875 0.040400513 -11.318518
6.7572045 0.16696149 -11.389436
6.3557806 0.55465394 -11.346435
-0.26958126 0.8773647 -11.369514
-0.26958126 0.8773647 -11.369514
5.6497865 0.85331154 -11.32544
5.6497865 0.85331154 -11.32544
6.2528973 0.84242219 -11.318933
6.3376746 0.84333956 -11.316308
4.453691 1.0468228 -11.349378
2.7433069 1.3699074 -11.392745
2.855974 1.3556998 -11.390942
0.013998136 1.5538082 -11.363981
0.013998136 1.5538082 -11.363981
0.013998136 1.5538082 -11.363981
3.5200789 1.5145274 -11.304002
2.8484139 1.6443644 -11.31313
2.8484139 1.6443644 -11.31313
2.1288128 2.0186028 -11.30461
0.74524164 2.3447399 -11.347002
1.1456861 2.3410561 -11.319811
-6.5532904 5.2546463 -11.385203
26.425409 -13.183585 -11.298904
1.7033634 -12.925206 -11.277749
3.3719139 -12.935992 -11.210989
2.0438826 -12.038338 -11.286786
2.0438826 -12.038338 -11.286786
2.0438826 -12.038338 -11.286786
16.184357 -11.891819 -11.253379
1.8054829 -11.429882 -11.21045
1.8054829 -11.429882 -11.21045
1.8054829 -11.429882 -11.21045
10.359944 -0.64921182 -11.27026
10.448645 -0.6484797 -11.249305
11.336751 -0.66358095 -11.262066
11.336751 -0.66358095 -11.262066
11.336751 -0.66358095 -11.262066
11.336751 -0.66358095 -11.262066
13.429623 -0.50489289 -11.219394
9.5668344 -0.27920267 -11.243253
10.17662 -0.23713782 -11.24489
8.3564243 -0.12997799 -11.281586
8.8419933 -0.066355616 -11.234724
8.9425793 -0.056550529 -11.221286
8.9425793 -0.056550529 -11.221286
-0.11424262 0.10286397 -11.201691
-0.11424262 0.10286397 -11.201691
-0.08028917 0.1382592 -11.219538
8.1429873 0.25038093 -11.233519
8.243886 0.24855624 -11.237458
7.6501608 0.35219675 -11.233525
8.1529446 0.32444245 -11.212341
6.8527465 0.64446807 -11.281292
6.7506108 0.8508749 -11.238383
7.0388312 0.85618502 -11.236341
7.1485324 0.85768235 -11.235536
4.7486057 1.170823 -11.285913
6.2504845 1.1275756 -11.20619
6.325675 1.1109531 -11.219217
5.5466571 1.2517313 -11.23247
5.5466571 1.2517313 -11.23247
5.2405691 1.3404706 -11.21918
4.7437506 1.4462504 -11.218026
3.5557175 1.5543466 -11.286366
0.23499829 1.7584581 -11.227968
3.3479834 1.7527885 -11.254671
2.652452 1.9489694 -11.267447
2.64783 2.0481665 -11.252484
1.3645413 2.2222507 -11.293519
2.1525676 2.2486491 -11.244551
2.4470825 2.2494357 -11.224142
2.4470825 2.2494357 -11.224142
1.162262 2.3800066 -11.297077
2.0526373 2.3505738 -11.224899
2.4420488 2.3226404 -11.204633
2.4420488 2.3226404 -11.204633
23.452768 -13.713906 -11.136852
23.452768 -13.713906 -11.136852
23.452768 -13.713906 -11.136852
25.744347 -13.439459 -11.113034
25.744347 -13.439459 -11.113034
3.4863124 -13.106982 -11.159216
3.4388323 -12.547664 -11.164249
3.4388323 -12.547664 -11.164249
3.4388323 -12.547664 -11.164249
15.093197 -12.114878 -11.124117
17.542852 -2.8214498 -11.142108
16.949596 -2.6299148 -11.175028
11.949518 -1.3737143 -11.175507
0.96645612 -0.67586875 -11.155862
0.43142766 -0.54573691 -11.122685
10.327637 -0.015953582 -11.122309
10.327637 -0.015953582 -11.122309
9.5713863 0.20353253 -11.101154
7.4430032 1.0342221 -11.107792
-0.20904833 1.1235092 -11.149912
2.3094721 1.3184166 -11.142728
2.3094721 1.3184166 -11.142728
5.0517011 1.4544058 -11.183929
5.9594421 1.5235592 -11.102655
4.7575636 1.8145576 -11.109997
1.2716939 1.9987978 -11.152016
3.6536529 1.9573362 -11.183891
0.65513432 2.0616207 -11.14791
0.65513432 2.0616207 -11.14791
3.2550313 2.0595076 -11.182386
3.2550313 2.0595076 -11.182386
3.2550313 2.0595076 -11.182386
3.6514544 2.0517004 -11.161937
4.2387781 2.0298851 -11.109006
3.2545714 2.2509768 -11.13974
2.4541504 2.3591776 -11.188654
2.9495742 2.3494334 -11.145344
3.2471108 2.3467476 -11.112201
3.2471108 2.3467476 -11.112201
3.3529041 2.3316953 -11.110708
3.0473795 2.4401608 -11.114305
-6.2945623 6.2123117 -11.145757
-6.2945623 6.2123117 -11.145757
-6.0127296 6.2032681 -11.115651
-6.0127296 6.2032681 -11.115651
-6.0127296 6.2032681 -11.115651
25.875576 -13.398214 -11.074418
26.226637 -13.350916 -11.030834
30.982895 -10.319839 -11.002339
